-16030.7446289 -17005.2597656 713.0 0.0 0.0 1.0
-16030.7446289 -16783.3847656 713.0 0.0 0.0 1.0
-16030.7446289 -16561.5097656 713.0 0.0 0.0 1.0
-16030.7446289 -16339.6347656 713.0 0.0 0.0 1.0
-16030.7446289 -16117.7597656 713.0 0.0 0.0 1.0
-16030.7446289 -15895.8847656 713.0 0.0 0.0 1.0
-16030.7446289 -15674.0097656 713.0 0.0 0.0 1.0
-16030.7446289 -15452.1347656 713.0 0.0 0.0 1.0
-15797.4116211 -17005.2597656 713.0 0.0 0.0 1.0
-15797.4116211 -16783.3847656 713.0 0.0 0.0 1.0
-15797.4116211 -16561.5097656 713.0 0.0 0.0 1.0
-15797.4116211 -16339.6347656 713.0 0.0 0.0 1.0
-15797.4116211 -16117.7597656 713.0 0.0 0.0 1.0
-15797.4116211 -15895.8847656 713.0 0.0 0.0 1.0
-15797.4116211 -15674.0097656 713.0 0.0 0.0 1.0
-15797.4116211 -15452.1347656 713.0 0.0 0.0 1.0
-15564.078125 -17005.2597656 713.0 0.0 0.0 1.0
-15564.078125 -16783.3847656 713.0 0.0 0.0 1.0
-15564.078125 -16561.5097656 713.0 0.0 0.0 1.0
-15564.078125 -16339.6347656 713.0 0.0 0.0 1.0
-15564.078125 -16117.7597656 713.0 0.0 0.0 1.0
-15564.078125 -15895.8847656 713.0 0.0 0.0 1.0
-15564.078125 -15674.0097656 713.0 0.0 0.0 1.0
-15564.078125 -15452.1347656 713.0 0.0 0.0 1.0
-16030.7446289 -15208.2597656 712.0 0.0 0.0 1.0
-16030.7446289 -14986.3847656 712.0 0.0 0.0 1.0
-16030.7446289 -14764.5097656 712.0 0.0 0.0 1.0
-16030.7446289 -14542.6347656 712.0 0.0 0.0 1.0
-16030.7446289 -14320.7597656 712.0 0.0 0.0 1.0
-16030.7446289 -14098.8847656 712.0 0.0 0.0 1.0
-16030.7446289 -13877.0097656 712.0 0.0 0.0 1.0
-16030.7446289 -13655.1347656 712.0 0.0 0.0 1.0
-15797.4116211 -15208.2597656 712.0 0.0 0.0 1.0
-15797.4116211 -14986.3847656 712.0 0.0 0.0 1.0
-15797.4116211 -14764.5097656 712.0 0.0 0.0 1.0
-15797.4116211 -14542.6347656 712.0 0.0 0.0 1.0
-15797.4116211 -14320.7597656 712.0 0.0 0.0 1.0
-15797.4116211 -14098.8847656 712.0 0.0 0.0 1.0
-15797.4116211 -13877.0097656 712.0 0.0 0.0 1.0
-15797.4116211 -13655.1347656 712.0 0.0 0.0 1.0
-15564.078125 -15208.2597656 712.0 0.0 0.0 1.0
-15564.078125 -14986.3847656 712.0 0.0 0.0 1.0
-15564.078125 -14764.5097656 712.0 0.0 0.0 1.0
-15564.078125 -14542.6347656 712.0 0.0 0.0 1.0
-15564.078125 -14320.7597656 712.0 0.0 0.0 1.0
-15564.078125 -14098.8847656 712.0 0.0 0.0 1.0
-15564.078125 -13877.0097656 712.0 0.0 0.0 1.0
-15564.078125 -13655.1347656 712.0 0.0 0.0 1.0
-16030.7446289 -13411.2597656 708.0 0.0 0.0 1.0
-16030.7446289 -13189.3847656 708.0 0.0 0.0 1.0
-16030.7446289 -12967.5097656 708.0 0.0 0.0 1.0
-16030.7446289 -12745.6347656 708.0 0.0 0.0 1.0
-16030.7446289 -12523.7597656 708.0 0.0 0.0 1.0
-16030.7446289 -12301.8847656 708.0 0.0 0.0 1.0
-16030.7446289 -12080.0097656 708.0 0.0 0.0 1.0
-16030.7446289 -11858.1347656 708.0 0.0 0.0 1.0
-15797.4116211 -13411.2597656 708.0 0.0 0.0 1.0
-15797.4116211 -13189.3847656 708.0 0.0 0.0 1.0
-15797.4116211 -12967.5097656 708.0 0.0 0.0 1.0
-15797.4116211 -12745.6347656 708.0 0.0 0.0 1.0
-15797.4116211 -12523.7597656 708.0 0.0 0.0 1.0
-15797.4116211 -12301.8847656 708.0 0.0 0.0 1.0
-15797.4116211 -12080.0097656 708.0 0.0 0.0 1.0
-15797.4116211 -11858.1347656 708.0 0.0 0.0 1.0
-15564.078125 -13411.2597656 708.0 0.0 0.0 1.0
-15564.078125 -13189.3847656 708.0 0.0 0.0 1.0
-15564.078125 -12967.5097656 708.0 0.0 0.0 1.0
-15564.078125 -12745.6347656 708.0 0.0 0.0 1.0
-15564.078125 -12523.7597656 708.0 0.0 0.0 1.0
-15564.078125 -12301.8847656 708.0 0.0 0.0 1.0
-15564.078125 -12080.0097656 708.0 0.0 0.0 1.0
-15564.078125 -11858.1347656 708.0 0.0 0.0 1.0
-15252.7446289 -17005.2597656 705.0 0.0 0.0 1.0
-15252.7446289 -16783.3847656 705.0 0.0 0.0 1.0
-15252.7446289 -16561.5097656 705.0 0.0 0.0 1.0
-15252.7446289 -16339.6347656 705.0 0.0 0.0 1.0
-15252.7446289 -16117.7597656 705.0 0.0 0.0 1.0
-15252.7446289 -15895.8847656 705.0 0.0 0.0 1.0
-15252.7446289 -15674.0097656 705.0 0.0 0.0 1.0
-15252.7446289 -15452.1347656 705.0 0.0 0.0 1.0
-15019.4116211 -17005.2597656 705.0 0.0 0.0 1.0
-15019.4116211 -16783.3847656 705.0 0.0 0.0 1.0
-15019.4116211 -16561.5097656 705.0 0.0 0.0 1.0
-15019.4116211 -16339.6347656 705.0 0.0 0.0 1.0
-15019.4116211 -16117.7597656 705.0 0.0 0.0 1.0
-15019.4116211 -15895.8847656 705.0 0.0 0.0 1.0
-15019.4116211 -15674.0097656 705.0 0.0 0.0 1.0
-15019.4116211 -15452.1347656 705.0 0.0 0.0 1.0
-14786.078125 -17005.2597656 705.0 0.0 0.0 1.0
-14786.078125 -16783.3847656 705.0 0.0 0.0 1.0
-14786.078125 -16561.5097656 705.0 0.0 0.0 1.0
-14786.078125 -16339.6347656 705.0 0.0 0.0 1.0
-14786.078125 -16117.7597656 705.0 0.0 0.0 1.0
-14786.078125 -15895.8847656 705.0 0.0 0.0 1.0
-14786.078125 -15674.0097656 705.0 0.0 0.0 1.0
-14786.078125 -15452.1347656 705.0 0.0 0.0 1.0
-15252.7446289 -15208.2597656 709.0 0.0 0.0 1.0
-15252.7446289 -14986.3847656 709.0 0.0 0.0 1.0
-15252.7446289 -14764.5097656 709.0 0.0 0.0 1.0
-15252.7446289 -14542.6347656 709.0 0.0 0.0 1.0
-15252.7446289 -14320.7597656 709.0 0.0 0.0 1.0
-15252.7446289 -14098.8847656 709.0 0.0 0.0 1.0
-15252.7446289 -13877.0097656 709.0 0.0 0.0 1.0
-15252.7446289 -13655.1347656 709.0 0.0 0.0 1.0
-15019.4116211 -15208.2597656 709.0 0.0 0.0 1.0
-15019.4116211 -14986.3847656 709.0 0.0 0.0 1.0
-15019.4116211 -14764.5097656 709.0 0.0 0.0 1.0
-15019.4116211 -14542.6347656 709.0 0.0 0.0 1.0
-15019.4116211 -14320.7597656 709.0 0.0 0.0 1.0
-15019.4116211 -14098.8847656 709.0 0.0 0.0 1.0
-15019.4116211 -13877.0097656 709.0 0.0 0.0 1.0
-15019.4116211 -13655.1347656 709.0 0.0 0.0 1.0
-14786.078125 -15208.2597656 709.0 0.0 0.0 1.0
-14786.078125 -14986.3847656 709.0 0.0 0.0 1.0
-14786.078125 -14764.5097656 709.0 0.0 0.0 1.0
-14786.078125 -14542.6347656 709.0 0.0 0.0 1.0
-14786.078125 -14320.7597656 709.0 0.0 0.0 1.0
-14786.078125 -14098.8847656 709.0 0.0 0.0 1.0
-14786.078125 -13877.0097656 709.0 0.0 0.0 1.0
-14786.078125 -13655.1347656 709.0 0.0 0.0 1.0
-15252.7446289 -13411.2597656 714.0 0.0 0.0 1.0
-15252.7446289 -13189.3847656 714.0 0.0 0.0 1.0
-15252.7446289 -12967.5097656 714.0 0.0 0.0 1.0
-15252.7446289 -12745.6347656 714.0 0.0 0.0 1.0
-15252.7446289 -12523.7597656 714.0 0.0 0.0 1.0
-15252.7446289 -12301.8847656 714.0 0.0 0.0 1.0
-15252.7446289 -12080.0097656 714.0 0.0 0.0 1.0
-15252.7446289 -11858.1347656 714.0 0.0 0.0 1.0
-15019.4116211 -13411.2597656 714.0 0.0 0.0 1.0
-15019.4116211 -13189.3847656 714.0 0.0 0.0 1.0
-15019.4116211 -12967.5097656 714.0 0.0 0.0 1.0
-15019.4116211 -12745.6347656 714.0 0.0 0.0 1.0
-15019.4116211 -12523.7597656 714.0 0.0 0.0 1.0
-15019.4116211 -12301.8847656 714.0 0.0 0.0 1.0
-15019.4116211 -12080.0097656 714.0 0.0 0.0 1.0
-15019.4116211 -11858.1347656 714.0 0.0 0.0 1.0
-14786.078125 -13411.2597656 714.0 0.0 0.0 1.0
-14786.078125 -13189.3847656 714.0 0.0 0.0 1.0
-14786.078125 -12967.5097656 714.0 0.0 0.0 1.0
-14786.078125 -12745.6347656 714.0 0.0 0.0 1.0
-14786.078125 -12523.7597656 714.0 0.0 0.0 1.0
-14786.078125 -12301.8847656 714.0 0.0 0.0 1.0
-14786.078125 -12080.0097656 714.0 0.0 0.0 1.0
-14786.078125 -11858.1347656 714.0 0.0 0.0 1.0
-12175.7446289 -17005.2597656 717.0 0.0 0.0 1.0
-12175.7446289 -16783.3847656 717.0 0.0 0.0 1.0
-12175.7446289 -16561.5097656 717.0 0.0 0.0 1.0
-12175.7446289 -16339.6347656 717.0 0.0 0.0 1.0
-12175.7446289 -16117.7597656 717.0 0.0 0.0 1.0
-12175.7446289 -15895.8847656 717.0 0.0 0.0 1.0
-12175.7446289 -15674.0097656 717.0 0.0 0.0 1.0
-12175.7446289 -15452.1347656 717.0 0.0 0.0 1.0
-11942.4116211 -17005.2597656 717.0 0.0 0.0 1.0
-11942.4116211 -16783.3847656 717.0 0.0 0.0 1.0
-11942.4116211 -16561.5097656 717.0 0.0 0.0 1.0
-11942.4116211 -16339.6347656 717.0 0.0 0.0 1.0
-11942.4116211 -16117.7597656 717.0 0.0 0.0 1.0
-11942.4116211 -15895.8847656 717.0 0.0 0.0 1.0
-11942.4116211 -15674.0097656 717.0 0.0 0.0 1.0
-11942.4116211 -15452.1347656 717.0 0.0 0.0 1.0
-11709.078125 -17005.2597656 717.0 0.0 0.0 1.0
-11709.078125 -16783.3847656 717.0 0.0 0.0 1.0
-11709.078125 -16561.5097656 717.0 0.0 0.0 1.0
-11709.078125 -16339.6347656 717.0 0.0 0.0 1.0
-11709.078125 -16117.7597656 717.0 0.0 0.0 1.0
-11709.078125 -15895.8847656 717.0 0.0 0.0 1.0
-11709.078125 -15674.0097656 717.0 0.0 0.0 1.0
-11709.078125 -15452.1347656 717.0 0.0 0.0 1.0
-12175.7446289 -15208.2597656 717.0 0.0 0.0 1.0
-12175.7446289 -14986.3847656 717.0 0.0 0.0 1.0
-12175.7446289 -14764.5097656 717.0 0.0 0.0 1.0
-12175.7446289 -14542.6347656 717.0 0.0 0.0 1.0
-12175.7446289 -14320.7597656 717.0 0.0 0.0 1.0
-12175.7446289 -14098.8847656 717.0 0.0 0.0 1.0
-12175.7446289 -13877.0097656 717.0 0.0 0.0 1.0
-12175.7446289 -13655.1347656 717.0 0.0 0.0 1.0
-11942.4116211 -15208.2597656 717.0 0.0 0.0 1.0
-11942.4116211 -14986.3847656 717.0 0.0 0.0 1.0
-11942.4116211 -14764.5097656 717.0 0.0 0.0 1.0
-11942.4116211 -14542.6347656 717.0 0.0 0.0 1.0
-11942.4116211 -14320.7597656 717.0 0.0 0.0 1.0
-11942.4116211 -14098.8847656 717.0 0.0 0.0 1.0
-11942.4116211 -13877.0097656 717.0 0.0 0.0 1.0
-11942.4116211 -13655.1347656 717.0 0.0 0.0 1.0
-11709.078125 -15208.2597656 717.0 0.0 0.0 1.0
-11709.078125 -14986.3847656 717.0 0.0 0.0 1.0
-11709.078125 -14764.5097656 717.0 0.0 0.0 1.0
-11709.078125 -14542.6347656 717.0 0.0 0.0 1.0
-11709.078125 -14320.7597656 717.0 0.0 0.0 1.0
-11709.078125 -14098.8847656 717.0 0.0 0.0 1.0
-11709.078125 -13877.0097656 717.0 0.0 0.0 1.0
-11709.078125 -13655.1347656 717.0 0.0 0.0 1.0
-12175.7446289 -13411.2597656 717.0 0.0 0.0 1.0
-12175.7446289 -13189.3847656 717.0 0.0 0.0 1.0
-12175.7446289 -12967.5097656 717.0 0.0 0.0 1.0
-12175.7446289 -12745.6347656 717.0 0.0 0.0 1.0
-12175.7446289 -12523.7597656 717.0 0.0 0.0 1.0
-12175.7446289 -12301.8847656 717.0 0.0 0.0 1.0
-12175.7446289 -12080.0097656 717.0 0.0 0.0 1.0
-12175.7446289 -11858.1347656 717.0 0.0 0.0 1.0
-11942.4116211 -13411.2597656 717.0 0.0 0.0 1.0
-11942.4116211 -13189.3847656 717.0 0.0 0.0 1.0
-11942.4116211 -12967.5097656 717.0 0.0 0.0 1.0
-11942.4116211 -12745.6347656 717.0 0.0 0.0 1.0
-11942.4116211 -12523.7597656 717.0 0.0 0.0 1.0
-11942.4116211 -12301.8847656 717.0 0.0 0.0 1.0
-11942.4116211 -12080.0097656 717.0 0.0 0.0 1.0
-11942.4116211 -11858.1347656 717.0 0.0 0.0 1.0
-11709.078125 -13411.2597656 717.0 0.0 0.0 1.0
-11709.078125 -13189.3847656 717.0 0.0 0.0 1.0
-11709.078125 -12967.5097656 717.0 0.0 0.0 1.0
-11709.078125 -12745.6347656 717.0 0.0 0.0 1.0
-11709.078125 -12523.7597656 717.0 0.0 0.0 1.0
-11709.078125 -12301.8847656 717.0 0.0 0.0 1.0
-11709.078125 -12080.0097656 717.0 0.0 0.0 1.0
-11709.078125 -11858.1347656 717.0 0.0 0.0 1.0
-11397.7446289 -17005.2597656 717.0 0.0 0.0 1.0
-11397.7446289 -16783.3847656 717.0 0.0 0.0 1.0
-11397.7446289 -16561.5097656 717.0 0.0 0.0 1.0
-11397.7446289 -16339.6347656 717.0 0.0 0.0 1.0
-11397.7446289 -16117.7597656 717.0 0.0 0.0 1.0
-11397.7446289 -15895.8847656 717.0 0.0 0.0 1.0
-11397.7446289 -15674.0097656 717.0 0.0 0.0 1.0
-11397.7446289 -15452.1347656 717.0 0.0 0.0 1.0
-11164.4116211 -17005.2597656 717.0 0.0 0.0 1.0
-11164.4116211 -16783.3847656 717.0 0.0 0.0 1.0
-11164.4116211 -16561.5097656 717.0 0.0 0.0 1.0
-11164.4116211 -16339.6347656 717.0 0.0 0.0 1.0
-11164.4116211 -16117.7597656 717.0 0.0 0.0 1.0
-11164.4116211 -15895.8847656 717.0 0.0 0.0 1.0
-11164.4116211 -15674.0097656 717.0 0.0 0.0 1.0
-11164.4116211 -15452.1347656 717.0 0.0 0.0 1.0
-10931.078125 -17005.2597656 717.0 0.0 0.0 1.0
-10931.078125 -16783.3847656 717.0 0.0 0.0 1.0
-10931.078125 -16561.5097656 717.0 0.0 0.0 1.0
-10931.078125 -16339.6347656 717.0 0.0 0.0 1.0
-10931.078125 -16117.7597656 717.0 0.0 0.0 1.0
-10931.078125 -15895.8847656 717.0 0.0 0.0 1.0
-10931.078125 -15674.0097656 717.0 0.0 0.0 1.0
-10931.078125 -15452.1347656 717.0 0.0 0.0 1.0
-11397.7446289 -15208.2597656 717.0 0.0 0.0 1.0
-11397.7446289 -14986.3847656 717.0 0.0 0.0 1.0
-11397.7446289 -14764.5097656 717.0 0.0 0.0 1.0
-11397.7446289 -14542.6347656 717.0 0.0 0.0 1.0
-11397.7446289 -14320.7597656 717.0 0.0 0.0 1.0
-11397.7446289 -14098.8847656 717.0 0.0 0.0 1.0
-11397.7446289 -13877.0097656 717.0 0.0 0.0 1.0
-11397.7446289 -13655.1347656 717.0 0.0 0.0 1.0
-11164.4116211 -15208.2597656 717.0 0.0 0.0 1.0
-11164.4116211 -14986.3847656 717.0 0.0 0.0 1.0
-11164.4116211 -14764.5097656 717.0 0.0 0.0 1.0
-11164.4116211 -14542.6347656 717.0 0.0 0.0 1.0
-11164.4116211 -14320.7597656 717.0 0.0 0.0 1.0
-11164.4116211 -14098.8847656 717.0 0.0 0.0 1.0
-11164.4116211 -13877.0097656 717.0 0.0 0.0 1.0
-11164.4116211 -13655.1347656 717.0 0.0 0.0 1.0
-10931.078125 -15208.2597656 717.0 0.0 0.0 1.0
-10931.078125 -14986.3847656 717.0 0.0 0.0 1.0
-10931.078125 -14764.5097656 717.0 0.0 0.0 1.0
-10931.078125 -14542.6347656 717.0 0.0 0.0 1.0
-10931.078125 -14320.7597656 717.0 0.0 0.0 1.0
-10931.078125 -14098.8847656 717.0 0.0 0.0 1.0
-10931.078125 -13877.0097656 717.0 0.0 0.0 1.0
-10931.078125 -13655.1347656 717.0 0.0 0.0 1.0
-11397.7446289 -13411.2597656 717.0 0.0 0.0 1.0
-11397.7446289 -13189.3847656 717.0 0.0 0.0 1.0
-11397.7446289 -12967.5097656 717.0 0.0 0.0 1.0
-11397.7446289 -12745.6347656 717.0 0.0 0.0 1.0
-11397.7446289 -12523.7597656 717.0 0.0 0.0 1.0
-11397.7446289 -12301.8847656 717.0 0.0 0.0 1.0
-11397.7446289 -12080.0097656 717.0 0.0 0.0 1.0
-11397.7446289 -11858.1347656 717.0 0.0 0.0 1.0
-11164.4116211 -13411.2597656 717.0 0.0 0.0 1.0
-11164.4116211 -13189.3847656 717.0 0.0 0.0 1.0
-11164.4116211 -12967.5097656 717.0 0.0 0.0 1.0
-11164.4116211 -12745.6347656 717.0 0.0 0.0 1.0
-11164.4116211 -12523.7597656 717.0 0.0 0.0 1.0
-11164.4116211 -12301.8847656 717.0 0.0 0.0 1.0
-11164.4116211 -12080.0097656 717.0 0.0 0.0 1.0
-11164.4116211 -11858.1347656 717.0 0.0 0.0 1.0
-10931.078125 -13411.2597656 717.0 0.0 0.0 1.0
-10931.078125 -13189.3847656 717.0 0.0 0.0 1.0
-10931.078125 -12967.5097656 717.0 0.0 0.0 1.0
-10931.078125 -12745.6347656 717.0 0.0 0.0 1.0
-10931.078125 -12523.7597656 717.0 0.0 0.0 1.0
-10931.078125 -12301.8847656 717.0 0.0 0.0 1.0
-10931.078125 -12080.0097656 717.0 0.0 0.0 1.0
-10931.078125 -11858.1347656 717.0 0.0 0.0 1.0
-15572.4115878 -15631.1970173 878.0 0.0 0.0 1.0
-15572.4115878 -13834.1970173 877.0 0.0 0.0 1.0
-15572.4115878 -12037.1970173 873.0 0.0 0.0 1.0
-15244.4115878 -16826.1970173 870.0 0.0 0.0 1.0
-15244.4115878 -15029.1970173 874.0 0.0 0.0 1.0
-15244.4115878 -13232.1970173 879.0 0.0 0.0 1.0
-11647.4115878 -15806.1970173 1117.0 0.0 0.0 1.0
-11647.4115878 -14039.1970173 1117.0 0.0 0.0 1.0
-11647.4115878 -12217.1970173 1117.0 0.0 0.0 1.0
-11459.4115878 -16661.1970173 1117.0 0.0 0.0 1.0
-11459.4115878 -14869.1970173 1117.0 0.0 0.0 1.0
-11459.4115878 -13072.1970173 1117.0 0.0 0.0 1.0
